FIELDS x y z label
DATA ascii
-30,03547 -8,224014 3,934102 0
-51,39204 -13,67542 5,523957 0
-51,7757 -13,57744 5,550007 0
-52,25599 -13,50142 5,58323 0
-52,77126 -13,43088 5,619022 0
-30,03832 -7,642647 3,926926 0
-29,613 -7,082305 3,889657 0
-29,99542 -7,055731 3,9166 0
-29,61483 -6,855914 3,88702 0
-29,40701 -6,137722 3,863581 0
-61,10107 -12,2994 6,199189 0
-29,86133 -5,890618 3,893132 0
-16,31367 -2,80313 2,889701 0
-16,33899 -2,744375 2,890867 0
-16,38975 -2,689435 2,893898 0
-16,43987 -2,637247 2,896919 0
-16,37466 -2,501896 2,890797 0
-16,43848 -2,448196 2,894792 0
-16,3402 -2,309515 2,886289 0
-16,27483 -2,238682 2,880866 0
-16,28043 -2,177318 2,880628 0
-16,33532 -2,122005 2,883986 0
-16,34249 -2,060678 2,883868 0
-40,48218 -4,045454 4,633301 0
-40,19805 -3,871355 4,611198 0
-29,36709 -1,668118 3,813599 0
-29,41194 -1,573857 3,815943 0
-39,52335 -1,386112 4,539304 0
-43,21943 0,3546728 4,78948 0
-26,30187 13,25705 3,523154 0
-26,1511 13,30275 3,512593 0
-26,14014 13,41612 3,51177 0
-26,0804 13,50567 3,507559 0
-26,04181 13,60567 3,504827 0
-26,00821 13,70826 3,502448 0
-25,99202 13,81982 3,501287 0
-33,6097 23,97627 4,036174 0
-33,52881 24,10048 4,03085 0
-32,85629 23,98941 3,984613 0
-32,82746 24,14797 3,982942 0
-31,40725 23,31281 3,884222 0
-31,3319 23,43168 3,879312 0
-32,77569 24,65228 3,980409 0
-46,46849 35,87333 4,938632 0
-46,08165 35,8425 4,912223 0
-45,56226 35,70762 4,87656 0
-45,14888 35,64988 4,848308 0
-44,75861 35,6068 4,821672 0
-44,3377 35,53687 4,792903 0
-44,03717 35,55817 4,772556 0
-43,56794 35,44397 4,740417 0
-43,10321 35,32941 4,708595 0
-42,69588 35,25705 4,68079 0
-42,30823 35,19732 4,654367 0
-41,92774 35,14035 4,628449 0
-41,56671 35,09636 4,603897 0
-41,17264 35,02227 4,577035 0
-40,80111 34,96375 4,551755 0
-40,43051 34,90303 4,526544 0
-40,04864 34,82986 4,500546 0
-39,69803 34,78046 4,476756 0
-39,33331 34,71589 4,451963 0
-38,99372 34,65781 4,428901 0
-38,64292 34,59959 4,405091 0
-38,29301 34,53933 4,381346 0
-37,99799 34,52457 4,361454 0
-37,6378 34,44986 4,336994 0
-37,31139 34,40232 4,314906 0
-36,96797 34,33689 4,291625 0
-36,65508 34,29628 4,270492 0
-36,32524 34,23777 4,248168 0
-35,98745 34,16924 4,225289 0
-35,69166 34,13675 4,205364 0
-35,38194 34,08899 4,184462 0
-35,07009 34,03675 4,163412 0
-34,76487 33,98822 4,142828 0
-34,45174 33,92973 4,121692 0
-34,2289 33,9551 4,106917 0
-34,19611 34,16238 4,105545 0
-34,15942 34,36707 4,103913 0
-34,14458 34,59425 4,103837 0
-34,10298 34,79654 4,101889 0
-34,05471 34,99331 4,099484 0
-34,02529 35,20995 4,098428 0
-33,9977 35,4296 4,097508 0
-33,96329 35,64384 4,096132 0
-33,91663 35,84686 4,093904 0
-33,89127 36,0729 4,0932 0
-33,84255 36,27623 4,090858 0
-33,83157 36,51999 4,091205 0
-33,8202 36,75222 4,091486 0
-25,57149 28,29931 3,508041 0
-33,78377 37,23281 4,091246 0
-23,33318 26,30211 3,351084 0
-26,00599 29,57755 3,542614 0
-25,96133 29,75825 3,540696 0
-33,54043 38,32232 4,080503 0
-24,98724 29,08866 3,473379 0
-24,8533 29,14466 3,464843 0
-24,81749 29,31059 3,463299 0
-33,43048 39,27959 4,077909 0
-24,98708 30,34725 3,479586 0
-24,88851 30,44808 3,473645 0
-33,17894 40,68658 4,068521 0
-28,8637 35,83743 3,761355 0
-23,00283 29,48118 3,345432 0
-22,18995 29,94956 3,295162 0
-21,97973 30,11306 3,282467 0
-32,58846 44,19619 4,049181 0
-32,62652 44,58456 4,053862 0
-21,41642 30,04044 3,245628 0
-18,94857 27,15078 3,06953 0
-20,23392 30,40979 3,17173 0
-25,44638 38,94044 3,558261 0
-31,88229 49,04917 4,032948 0
-31,76614 49,24802 4,026791 0
-31,72204 49,55648 4,025937 0
-31,66958 49,85523 4,024499 0
-31,60013 50,14993 4,021967 0
-31,57476 50,49604 4,022586 0
-31,52138 50,80228 4,02118 0
-31,46627 51,10875 4,019676 0
-31,3987 51,3986 4,017286 0
-31,34442 51,71226 4,01591 0
-31,30953 52,06008 4,016 0
-31,24732 52,36751 4,014105 0
-31,2093 52,69671 4,013903 0
-6,917389 13,45121 2,214851 0
-6,658952 13,44694 2,198585 0
-6,596646 13,44861 2,194689 0
-6,517091 13,42541 2,18954 0
-6,442131 13,40393 2,184695 0
-6,377647 13,39466 2,180597 0
-6,316868 13,39688 2,176814 0
-6,265923 13,41628 2,173772 0
-30,31613 58,32611 3,996941 0
-30,24422 58,68302 3,995025 0
-30,17396 59,04721 3,99328 0
-30,12205 59,4505 3,992974 0
-30,08854 59,84318 3,993755 0
-30,02637 60,23657 3,992767 0
-29,91878 60,59849 3,988737 0
-29,86096 61,01016 3,988184 0
-29,80605 61,43286 3,987907 0
-29,74678 61,85234 3,987351 0
-29,69063 62,22912 3,986688 0
-29,62473 62,64566 3,985728 0
-29,55631 63,06249 3,984629 0
-29,46619 63,44002 3,981909 0
-29,39391 63,8879 3,980828 0
-29,34186 64,35606 3,981172 0
-29,275 64,79933 3,980429 0
-2,881165 8,912882 1,930838 0
-2,84731 8,921802 1,928842 0
-2,814269 8,932412 1,926911 0
-28,90299 67,02743 3,974724 0
-3,88331 11,4959 2,012267 0
-3,834846 11,49549 2,009312 0
-3,795658 11,5214 2,007132 0
-3,782186 11,60134 2,006949 0
-28,55103 69,4021 3,971771 0
-28,46768 69,88149 3,97047 0
-28,36924 70,40102 3,968579 0
-28,27656 70,87357 3,96669 0
-28,20076 71,39436 3,966227 0
-28,10204 71,86739 3,964007 0
-28,03632 72,42954 3,964519 0
-27,36657 76,81796 3,959632 0
-25,73835 78,25368 3,873855 0
-24,77591 78,15868 3,815625 0
-24,13212 77,95032 3,775555 0
-19,66285 64,99432 3,400613 0
-5,089189 20,1893 2,156447 0
-3,746454 16,11797 2,042313 0
-3,681134 16,1067 2,038361 0
-3,626188 16,10877 2,035142 0
-3,579401 16,15833 2,032812 0
-3,535156 16,21733 2,030717 0
-3,488881 16,27047 2,028455 0
-4,580017 20,29647 2,12735 0
-4,504501 20,30139 2,122959 0
-4,433328 20,32144 2,118958 0
-4,363151 20,3451 2,115051 0
-4,251935 20,21803 2,107436 0
-4,188309 20,26423 2,104118 0
-19,51456 78,48311 3,507664 0
-19,35905 79,01212 3,503173 0
-19,26381 79,78887 3,504384 0
-19,18108 80,63569 3,506953 0
-18,91641 81,93472 3,502909 0
-2,795653 18,99996 2,01218 0
-2,696212 19,19241 2,008185 0
-2,642388 19,27277 2,005816 0
-2,611501 20,21221 2,012483 0
-2,119601 18,33517 1,967477 0
-2,146947 19,64246 1,980846 0
-2,076825 19,62609 1,976713 0
-2,002125 19,60216 1,972253 0
-1,970613 19,84241 1,972645 0
-1,748589 19,35332 1,955624 0
-1,664857 19,25895 1,950031 0
-1,595583 19,25721 1,946102 0
-1,448029 18,71294 1,932815 0
-1,364289 18,59361 1,927007 0
-1,317323 18,73542 1,925658 0
-1,254901 18,7439 1,922226 0
-1,189702 18,75656 1,91868 0
-1,125451 18,77693 1,915261 0
-1,061577 18,80106 1,911901 0
-0,9938122 18,82139 1,908292 0
-0,9499465 19,01987 1,907659 0
-1,774659 28,76686 2,043232 0
-0,6980473 19,19621 1,895229 0
-0,658403 19,44941 1,895355 0
-0,6064827 19,62723 1,894107 0
-0,544237 19,70535 1,89137 0
-0,3973229 19,61391 1,882384 0
-0,3308262 19,64752 1,879015 0
-0,9400213 28,41777 1,993654 0
-0,8587554 28,67263 1,991514 0
-0,7187698 28,11736 1,978657 0
-0,6632252 28,76665 1,981592 0
-0,7398839 31,57534 2,011776 0
-0,3546237 28,67357 1,963748 0
-0,2729693 29,03456 1,962605 0
-0,05261117 28,45686 1,94518 0
0,06304733 28,3179 1,93756 0
0,1268853 29,23319 1,942547 0
-0,140084 39,31737 2,050547 0
0,4225311 46,25449 2,084183 0
0,5701678 47,22903 2,085201 0
11,12372 39,63902 1,465897 0
10,85364 37,98312 1,464887 0
9,112718 27,77214 1,462663 0
9,034477 26,46292 1,455307 0
8,878963 25,59972 1,455576 0
8,79468 24,99458 1,454558 0
8,706264 24,39035 1,453755 0
8,545362 23,56536 1,454631 0
8,449108 22,96708 1,454274 0
8,370602 22,42576 1,453529 0
8,302842 21,94368 1,452775 0
8,223137 21,44833 1,452496 0
8,012145 20,30957 1,453215 0
7,991734 20,01285 1,451734 0
8,038334 19,90852 1,448612 0
8,108084 19,88475 1,445045 0
8,187405 19,89973 1,441343 0
8,269047 19,90941 1,437488 0
8,333999 19,88229 1,434139 0
8,406357 19,86502 1,430518 0
8,48623 19,85752 1,426619 0
8,557178 19,83594 1,423039 0
8,642643 19,84283 1,418999 0
8,716373 19,82818 1,415352 0
8,780357 19,8084 1,412136 0
8,854042 19,79325 1,408495 0
8,940375 19,79008 1,40435 0
9,01262 19,77061 1,400753 0
9,088222 19,77965 1,397231 0
9,153072 19,74107 1,39384 0
9,23613 19,73799 1,389872 0
9,312817 19,72856 1,386162 0
9,390777 19,73133 1,382499 0
9,46297 19,71022 1,378917 0
9,536658 19,69255 1,375297 0
9,610325 19,6746 1,37168 0
9,680822 19,64902 1,368157 0
9,755996 19,63421 1,364502 0
9,840754 19,64111 1,36057 0
9,909562 19,61105 1,357105 0
9,988004 19,60268 1,353361 0
10,07467 19,61225 1,349374 0
10,14326 19,59021 1,345995 0
10,22185 19,58092 1,34225 0
10,30055 19,56248 1,338433 0
10,3792 19,55258 1,33469 0
10,45449 19,54396 1,331118 0
10,52124 19,50814 1,327741 0
10,6085 19,50655 1,323673 0
10,68378 19,48822 1,320041 0
10,75391 19,46766 1,316636 0
10,84501 19,48108 1,312517 0
10,92551 19,46376 1,308663 0
10,99191 19,42633 1,305318 0
11,06198 19,40466 1,301926 0
11,1517 19,41313 1,297852 0
11,22873 19,39631 1,294177 0
11,32055 19,40759 1,290036 0
11,39191 19,3706 1,286488 0
11,4728 19,3599 1,282699 0
11,55973 19,36833 1,278776 0
11,62947 19,33579 1,275351 0
7,384312 11,30145 1,412169 0
7,373353 11,18695 1,411861 0
7,33283 11,02462 1,412566 0
7,29609 10,86689 1,413134 0
7,27 10,73051 1,41337 0
7,21267 10,54041 1,414653 0
12,35084 19,21041 1,241635 0
12,43018 19,19234 1,237919 0
12,51962 19,1912 1,233868 0
12,6092 19,18968 1,229812 0
12,69072 19,17401 1,226029 0
12,76611 19,14772 1,222455 0
12,85592 19,1451 1,218395 0
12,9313 19,11817 1,214827 0
13,015 19,10458 1,210978 0
13,10506 19,10085 1,206914 0
13,23963 19,16801 1,201327 0
13,34506 19,18704 1,196733 0
14,01623 19,04828 1,165963 0
14,09635 19,02354 1,162259 0
7,47177 9,109526 1,393705 0
14,4418 18,96469 1,146636 0
14,5357 18,95791 1,142458 0
14,62627 18,94579 1,138399 0
14,71113 18,92511 1,134545 0
14,80065 18,91059 1,130527 0
14,98693 18,89006 1,12224 0
15,0696 18,86463 1,118473 0
15,16201 18,859 1,114402 0
15,30779 18,91801 1,108378 0
15,34862 18,82794 1,106076 0
15,43379 18,80421 1,10223 0
15,51414 18,77374 1,098559 0
10,0091 11,42017 1,296284 0
10,02603 11,35949 1,295212 0
15,84248 18,65802 1,08366 0
15,94981 18,66046 1,079028 0
16,02508 18,62161 1,07556 0
16,15009 18,64502 1,070288 0
16,19788 18,57109 1,067828 0
16,34586 18,62147 1,06172 0
16,43884 18,6028 1,057617 0
16,53441 18,58681 1,053423 0
16,61478 18,55187 1,049787 0
16,70021 18,52275 1,04597 0
16,79588 18,50552 1,041779 0
16,93803 18,54287 1,035884 0
17,00297 18,48802 1,032827 0
17,1431 18,52107 1,027006 0
17,22562 18,49252 1,023341 0
17,32444 18,47593 1,019045 0
7,766985 7,40241 1,371539 0
7,814157 7,403769 1,369544 0
7,845614 7,386903 1,368136 0
7,876928 7,369936 1,366731 0
7,929581 7,376639 1,364536 0
7,982363 7,383065 1,362336 0
8,005646 7,356698 1,361233 0
8,047749 7,350884 1,359432 0
8,077682 7,331651 1,358085 0
8,122545 7,3284 1,356183 0
8,172936 7,330762 1,354076 0
8,215196 7,324138 1,352273 0
8,253463 7,31562 1,350632 0
8,28473 7,297044 1,349242 0
8,329824 7,292739 1,347336 0
8,374972 7,288209 1,345429 0
8,42297 7,286314 1,343416 0
8,46543 7,278471 1,341612 0
8,496667 7,25906 1,340231 0
8,544802 7,256504 1,338215 0
8,590171 7,250882 1,336305 0
8,631323 7,240814 1,334555 0
8,666955 7,227631 1,333024 0
8,709563 7,218585 1,331222 0
8,757944 7,214894 1,329202 0
8,803505 7,208181 1,327291 0
8,849012 7,201267 1,325378 0
8,897563 7,196846 1,323355 0
8,936192 7,185284 1,321719 0
8,984836 7,1804 1,319695 0
9,030609 7,172545 1,317781 0
9,085238 7,172591 1,315532 0
11,00866 8,33603 1,240567 0
21,83892 16,67835 0,8245839 0
21,89731 16,60639 0,8220165 0
22,29356 16,55904 0,8058538 0
22,40217 16,53109 0,8013953 0
22,50107 16,48908 0,7972971 0
29,0794 20,37756 0,5419267 0
29,29227 20,08482 0,5328022 0
30,36855 18,49706 0,4875378 0
30,16205 18,07582 0,4951859 0
30,49691 18,1436 0,4820836 0
31,49228 18,19557 0,4430474 0
32,17667 17,87167 0,4160314 0
31,68653 17,30485 0,4348546 0
31,67051 17,15516 0,4354104 0
31,97512 17,19294 0,4235609 0
31,72783 16,91451 0,4330874 0
32,02209 16,94462 0,4216516 0
31,70263 16,62974 0,4339887 0
36,69973 18,72528 0,2403693 0
14,10016 6,257204 1,115884 0
14,13297 6,2177 1,114647 0
14,58273 6,270208 1,097346 0
14,57402 6,209366 1,097729 0
14,57411 6,152872 1,097774 0
14,56307 6,091444 1,098253 0
14,54449 6,026855 1,099026 0
14,53473 5,966584 1,099461 0
14,61411 5,946446 1,096449 0
14,71362 5,934733 1,092662 0
14,81321 5,922396 1,088875 0
14,89638 5,902264 1,085728 0
14,99323 5,89033 1,082051 0
15,07647 5,869144 1,078908 0
15,18182 5,856782 1,074914 0
15,27803 5,839898 1,071277 0
15,37346 5,819198 1,067678 0
15,46792 5,800343 1,064117 0
15,56881 5,786389 1,060308 0
15,67448 5,77082 1,056321 0
15,78393 5,75606 1,052193 0
15,88044 5,735478 1,04857 0
15,97325 5,712839 1,045094 0
47,11551 17,12771 -0,156357 0
47,48279 17,08104 -0,1701619 0
47,82698 17,01428 -0,1830426 0
48,19843 16,96427 -0,196977 0
48,52951 16,90664 -0,2093591 0
48,90511 16,85337 -0,2234228 0
49,26205 16,79108 -0,2367518 0
49,63424 16,73173 -0,2506518 0
50,04819 16,68422 -0,2661453 0
50,37154 16,60326 -0,2781306 0
50,74129 16,54535 -0,2919112 0
51,12928 16,48149 -0,306353 0
19,3288 5,648561 0,2591147 0
21,86851 5,275912 0,08353024 0
23,67565 4,911438 -0,04077734 1
23,74754 4,84487 -0,04511085 1
23,8761 4,798164 -0,05372814 1
24,10778 4,76399 -0,0698599 1
24,25743 4,7114 -0,07992391 1
24,46175 4,668863 -0,09401399 0
24,61908 4,61565 -0,1046302 1
24,66667 4,540078 -0,1071536 1
24,70617 4,462737 -0,1090847 1
24,72188 4,380773 -0,1092686 1
24,80795 4,311715 -0,1146322 1
24,82314 4,229397 -0,1147848 1
24,83801 4,147049 -0,1149214 1
24,89587 4,072093 -0,1182178 1
24,89519 3,982695 -0,1171728 1
24,88561 3,896174 -0,1155284 1
24,98138 3,83109 -0,1216611 1
25,02248 3,752537 -0,1237397 1
25,00875 3,661073 -0,121761 1
24,9901 3,573303 -0,1194752 1
25,07254 3,509116 -0,1246813 1
25,12441 3,431571 -0,1275629 1
25,11676 3,345386 -0,1260969 1
25,14043 3,263625 -0,1269249 1
25,1915 3,185431 -0,1297583 1
25,21462 3,103328 -0,130554 1
25,24142 3,021604 -0,1316223 1
25,32338 2,946527 -0,1367165 1
25,30606 2,859125 -0,1345763 1
25,29635 2,772799 -0,1329978 1
25,33882 2,683958 -0,1351398 1
25,39195 2,60452 -0,1381453 1
25,40029 2,528595 -0,1379791 1
25,40924 2,444232 -0,137779 1
25,44173 2,362169 -0,1392939 1
25,53749 2,285893 -0,1454079 0
25,68467 2,213654 -0,1552535 0
25,96677 2,152187 -0,1748853 0
26,29682 2,088394 -0,19794 0
26,61843 2,025984 -0,2204071 0
26,97934 1,968861 -0,2457491 0
27,33251 1,904231 -0,270472 0
27,78506 1,844059 -0,3023714 0
28,08224 1,770501 -0,3230049 0
28,19177 1,687897 -0,3300966 0
28,377 1,604341 -0,3426175 0
28,46637 1,514197 -0,3482053 0
28,51958 1,421584 -0,3511816 0
28,5727 1,323859 -0,3541127 0
28,49771 1,224817 -0,3478431 0
28,5019 1,134359 -0,3473373 0
27,43553 -0,09492581 -0,2603625 0
27,33496 -0,2812795 -0,2516503 0
26,91392 -1,160081 -0,214701 0
26,90548 -1,343747 -0,2127603 0
26,89599 -1,522879 -0,2107989 0
26,44808 -2,203533 -0,1739986 0
26,28017 -2,890413 -0,1575968 0
26,36923 -2,989652 -0,16338 0
26,35889 -3,077316 -0,1621125 0
26,34825 -3,164943 -0,1608288 0
26,1828 -4,295822 -0,1427454 0
26,23939 -4,390996 -0,1463111 0
26,19274 -4,472507 -0,1425635 0
26,21174 -4,570377 -0,1434384 0
26,31746 -4,680327 -0,1504624 0
26,37568 -4,782056 -0,1541347 0
26,44132 -4,88578 -0,158334 0
26,36651 -4,957615 -0,1526459 0
26,44708 -5,065034 -0,1579058 0
26,45684 -5,158576 -0,1581745 0
26,41159 -5,240777 -0,1545678 0
23,64496 -4,823596 0,04125133 0
23,62822 -4,901666 0,04278792 0
26,72631 -5,678881 -0,1751335 1
26,70657 -5,767756 -0,1733489 1
26,79046 -5,974566 -0,1784836 0
26,76192 -6,061802 -0,176095 0
26,86882 -6,181885 -0,1832444 0
26,85507 -6,273162 -0,1819064 0
26,90408 -6,375507 -0,1850044 0
26,89738 -6,468924 -0,1841719 0
26,9599 -6,580293 -0,1882131 0
26,98335 -6,682085 -0,1895102 0
26,99096 -6,780026 -0,1896987 0
27,16393 -6,922669 -0,2015151 0
23,4319 -6,001939 0,06110131 1
23,40719 -6,078177 0,06312451 1
23,40913 -6,161853 0,06327111 1
23,40692 -6,244524 0,06370513 1
23,33152 -6,306277 0,06927398 1
23,25979 -6,368694 0,0745789 1
23,2399 -6,437742 0,07621372 1
24,69741 -6,95665 -0,02584086 1
24,62615 -7,028567 -0,02055645 0
24,31552 -7,022269 0,001506203 0
24,13863 -7,055307 0,01417384 0
24,00368 -7,100357 0,02389166 0
23,90036 -7,150291 0,03137131 0
23,88689 -7,232886 0,03255445 0
23,8124 -7,29569 0,03801183 0
23,73016 -7,355558 0,04400601 1
23,68813 -7,432733 0,04718531 1
23,63959 -7,503246 0,05080556 1
23,61358 -7,581377 0,05284735 1
23,56834 -7,652771 0,05622513 1
23,52933 -7,717514 0,05914193 1
23,49119 -7,791141 0,06201211 1
23,48765 -7,88574 0,06247081 1
23,43393 -7,953712 0,06642115 1
23,35752 -8,013183 0,07195579 1
23,39703 -8,115073 0,06936546 0
23,30148 -8,167094 0,07622951 1
23,32161 -8,262215 0,07498758 1
23,29431 -8,335259 0,07705428 1
23,2653 -8,412037 0,0792433 1
23,23602 -8,488712 0,08144592 1
23,15818 -8,546297 0,08704254 1
23,17666 -8,641747 0,08589202 1
23,16511 -8,72554 0,08683924 1
23,09774 -8,786862 0,09168687 1
23,09671 -8,875042 0,09188773 1
23,04679 -8,934393 0,09549272 1
23,02306 -9,013366 0,09727213 1
23,03633 -9,116899 0,09646793 0
22,9495 -9,169295 0,1026509 0
22,88412 -9,221564 0,1073189 0
22,85201 -9,296887 0,1096636 0
22,8196 -9,372032 0,1120214 0
22,81618 -9,460041 0,1123498 0
22,79053 -9,538374 0,1142277 0
22,76096 -9,615005 0,1163748 0
22,63663 -9,648575 0,1251434 0
22,43251 -9,644752 0,139486 0
22,27939 -9,663106 0,1502565 0
22,48804 -9,849576 0,1357248 0
22,4393 -9,916685 0,1391867 0
22,30385 -9,942383 0,1487068 1
22,13968 -9,953423 0,1602291 0
21,93976 -9,94602 0,1742452 0
21,88535 -10,00391 0,1780817 0
19,75233 -9,040931 0,3272464 0
19,71928 -9,108458 0,3295803 0
21,49289 -10,07918 0,2055926 0
21,17287 -10,00528 0,227981 0
21,15937 -10,08548 0,2289338 0
21,15086 -10,16408 0,2295327 0
21,21467 -10,28484 0,2250707 0
21,16471 -10,34687 0,2285581 0
21,10397 -10,40307 0,2327943 0
20,79645 -10,32752 0,2542815 0
20,84137 -10,43897 0,2511202 0
20,92436 -10,57178 0,2452919 1
20,82449 -10,60573 0,252246 0
20,80526 -10,67472 0,2535603 0
20,73318 -10,72333 0,2585619 0
20,51467 -10,68964 0,2737994 0
20,32794 -10,67222 0,2868115 0
20,33241 -10,76224 0,2864455 0
20,21182 -10,78089 0,2948231 1
20,18464 -10,85279 0,2966614 1
20,1227 -10,90453 0,3009272 1
20,10882 -10,98428 0,3018259 1
20,11179 -11,07426 0,301541 1
20,06979 -11,13776 0,304397 1
20,00022 -11,18463 0,3091786 1
19,96322 -11,24655 0,3116806 1
19,91043 -11,30324 0,3152792 1
19,86086 -11,3618 0,3186468 1
19,79076 -11,40751 0,3234475 1
19,72733 -11,45709 0,3277764 1
19,58273 -11,45525 0,3377848 0
19,46196 -11,46752 0,3461215 1
19,3884 -11,50924 0,3511485 1
19,39192 -11,6004 0,3507719 1
19,35487 -11,6656 0,3532327 1
19,31754 -11,73062 0,3557055 1
19,27002 -11,78897 0,3588903 1
19,2356 -11,85598 0,361152 1
19,20426 -11,92511 0,3631938 1
19,2322 -12,03442 0,3610748 1
19,15727 -12,07439 0,3661617 1
19,15026 -12,15607 0,3664915 1
19,0652 -12,18871 0,3722803 1
18,95719 -12,20494 0,3796751 0
18,90814 -12,26183 0,3829312 0
18,07615 -11,76542 0,4411156 0
18,03518 -11,82381 0,4438052 0
17,97453 -11,86809 0,4478714 0
18,6486 -12,44299 0,4003557 0
18,59234 -12,49398 0,404096 0
18,45541 -12,48569 0,4134969 0
18,47296 -12,59048 0,412046 0
18,41307 -12,63833 0,4160278 0
18,35209 -12,68056 0,4200958 0
18,32385 -12,75193 0,4218456 0
18,31758 -12,84018 0,4220463 0
18,30772 -12,92611 0,422493 0
18,30064 -13,01457 0,4227392 0
18,28368 -13,09578 0,4236741 0
18,29469 -13,19921 0,4226369 0
18,29889 -13,2979 0,422071 0
18,1681 -13,29 0,4310018 0
18,03757 -13,28134 0,4399124 1
17,97575 -13,32704 0,4439826 1
17,94482 -13,39763 0,4458714 1
17,91052 -13,46564 0,4479936 1
17,88519 -13,54119 0,4494777 1
17,87351 -13,61861 0,4500258 1
17,82606 -13,67626 0,4530596 1
17,81205 -13,762 0,4537294 1
17,79764 -13,84781 0,4544213 1
17,77979 -13,93109 0,4553501 1
17,75246 -14,00662 0,4569419 1
17,6589 -14,03011 0,4631892 1
17,6311 -14,10535 0,4648047 1
17,57541 -14,15142 0,4684044 1
17,54406 -14,22387 0,4702599 1
17,53032 -14,3122 0,470865 1
17,51913 -14,40327 0,4712828 1
17,50202 -14,49457 0,4720943 1
17,46334 -14,56164 0,4744456 1
17,44422 -14,6365 0,4754461 1
17,43435 -14,7305 0,4757447 1
17,4211 -14,82189 0,4762769 1
17,41616 -14,92154 0,4762124 1
17,3764 -14,99956 0,4785681 1
17,34732 -15,07742 0,4802024 1
17,34053 -15,16624 0,4802935 1
17,32801 -15,26073 0,4807395 1
17,3179 -15,35809 0,4810075 1
17,28441 -15,43326 0,48293 1
17,29622 -15,55314 0,4816247 0
17,27328 -15,63961 0,4827832 0
17,25276 -15,72892 0,4837623 0
17,22617 -15,81262 0,4851672 0
17,11766 -15,81965 0,4923754 0
17,18023 -15,99418 0,4874143 0
17,16917 -16,08946 0,4877165 0
17,13814 -16,17039 0,4894102 0
17,14285 -16,28307 0,4885731 0
17,13307 -16,38715 0,488735 0
17,09522 -16,46242 0,490894 0
17,08721 -16,56957 0,4909134 0
17,06481 -16,66795 0,491925 0
17,02848 -16,74611 0,4939535 0
17,01915 -16,84788 0,4940726 0
16,98474 -16,92896 0,4959501 0
16,94162 -17,00687 0,4984157 0
16,91451 -17,09674 0,499756 0
16,88995 -17,18392 0,5009362 0
16,8194 -17,22614 0,50538 0
16,7938 -17,3189 0,5065902 0
16,71758 -17,35471 0,5114312 0
16,69127 -17,44735 0,5126797 0
16,63568 -17,50682 0,5160265 0
16,58247 -17,56915 0,5191965 0
16,5368 -17,64041 0,5218171 0
16,47013 -17,68722 0,5259463 0
16,32858 -17,64521 0,5354721 0
16,37943 -17,83782 0,5310758 0
16,28403 -17,85022 0,5372642 0
16,24526 -17,92428 0,5393916 0
16,19544 -17,9916 0,5422766 0
16,10748 -18,0123 0,5479159 0
16,06729 -18,09165 0,5500922 0
16,01989 -18,15592 0,5528219 0
15,93417 -18,17887 0,5582873 0
15,89062 -18,2547 0,5606878 0
15,84673 -18,33046 0,5631067 0
15,78945 -18,39603 0,5664527 0
15,72531 -18,44629 0,5703304 0
15,6642 -18,49379 0,5740217 0
15,61184 -18,55948 0,5770309 0
15,5761 -18,64733 0,578822 0
15,53991 -18,73515 0,5806367 0
15,4698 -18,77813 0,5849212 0
15,41861 -18,84652 0,5878181 0
15,34816 -18,88903 0,5921175 0
15,29881 -18,96032 0,5948675 0
15,23269 -19,00885 0,5988383 0
15,17576 -19,07011 0,6021311 0
15,10926 -19,11821 0,6061193 0
15,0611 -19,19214 0,6087548 0
14,97578 -19,21369 0,6141172 0
14,92023 -19,27746 0,6172839 0
14,8758 -19,35748 0,6196247 0
14,8083 -19,40452 0,623659 0
14,76319 -19,48431 0,6260343 0
14,73564 -19,59048 0,6271032 0
14,64947 -19,6105 0,6324992 0
14,57665 -19,65009 0,6369037 0
14,52261 -19,71044 0,6399614 0
14,42531 -19,71283 0,6461735 0
14,35313 -19,76054 0,6504669 0
14,33858 -19,88958 0,6505191 0
14,2822 -19,95491 0,6536725 0
14,18897 -19,9628 0,659567 0
14,10439 -19,98378 0,664814 0
14,1134 -20,1533 0,6630634 0
14,07062 -20,24173 0,6651693 0
13,9727 -20,24174 0,6713966 0
13,88538 -20,25835 0,6768276 0
13,85009 -20,35992 0,6783497 0
13,77438 -20,3875 0,6829568 0
13,73002 -20,47521 0,6851428 0
13,62183 -20,45638 0,6921298 0
13,60129 -20,58504 0,6925022 0
13,52951 -20,62759 0,696733 0
13,4877 -20,72172 0,6986904 0
13,41943 -20,77078 0,7026412 0
13,34304 -20,80575 0,7072031 0
13,2902 -20,88215 0,70997 0
13,21738 -20,92359 0,7142483 0
13,14442 -20,96478 0,7185323 0
13,07132 -21,00572 0,7228222 0
6,476428 -9,15958 1,225659 0
6,467543 -9,219317 1,225776 0
6,476334 -9,312521 1,22453 0
6,484534 -9,405897 1,223317 0
6,499628 -9,513562 1,221562 0
6,501011 -9,596686 1,220849 0
6,512968 -9,7012 1,21931 0
6,514156 -9,786386 1,218588 0
6,537609 -9,916157 1,216132 0
6,488663 -9,905457 1,219273 0
12,39286 -21,70658 0,759892 0
12,3386 -21,78778 0,7626326 0
12,28568 -21,87244 0,7652575 0
12,20941 -21,91034 0,7696952 0
12,133 -21,94798 0,7741379 0
12,05646 -21,98535 0,7785854 0
11,99703 -22,05851 0,7816838 0
11,903 -22,05927 0,7874954 0
11,82607 -22,09583 0,7919577 0
11,8114 -22,26623 0,7914958 0
11,78562 -22,41501 0,7918876 0
11,69417 -22,42206 0,7974679 0
11,64461 -22,51073 0,7998008 0
11,56611 -22,54638 0,8043413 0
11,52411 -22,67485 0,8058751 0
11,44503 -22,71006 0,8104433 0
11,38659 -22,79265 0,813351 0
11,3071 -22,82738 0,8179377 0
11,2275 -22,86185 0,8225288 0
11,17737 -22,96598 0,8247326 0
11,1251 -23,06634 0,8270941 0
11,00208 -23,22613 0,8332697 0
10,92108 -23,25951 0,8379278 0
10,85748 -23,32434 0,8412569 0
10,78058 -23,36835 0,8455652 0
10,70349 -23,41211 0,8498816 0
10,63639 -23,48167 0,853367 0
10,5545 -23,51376 0,8580633 0
10,4725 -23,54557 0,8627633 0
10,3986 -23,57395 0,8669966 0
10,31756 -23,87386 0,8693249 0
10,21639 -23,85604 0,8755884 0
10,20141 -24,07456 0,8746048 0
10,09853 -24,05243 0,8809977 0
10,03338 -24,13538 0,884201 0
9,949206 -24,16534 0,8890042 0
9,869144 -24,19354 0,8935704 0
9,784769 -24,22293 0,8983802 0
9,721243 -24,29979 0,9015179 0
9,642863 -24,34761 0,9057954 0
9,598276 -24,49762 0,9071448 0
9,535282 -24,59444 0,9100587 0
9,449505 -24,62265 0,9149351 0
9,390478 -24,73432 0,9174694 0
9,316283 -24,80015 0,9213098 0
9,229791 -24,82759 0,9262189 0
9,143201 -24,85473 0,9311309 0
8,923723 -25,05564 0,94237 0
8,881322 -25,2185 0,9434196 0
8,773302 -25,17529 0,9502072 0
8,711931 -25,29307 0,9527757 0
8,650913 -25,41458 0,9552837 0
8,557842 -25,44092 0,9605411 0
8,469112 -25,46569 0,9655507 0
8,389181 -25,48772 0,9700612 0
8,220766 -25,60772 0,9788775 0
8,073827 -25,77853 0,9859428 0
8,032877 -25,99544 0,986353 0
7,951281 -26,01609 0,9909428 0
7,860543 -26,03872 0,9960446 0
7,760644 -26,06323 1,001659 0
7,669743 -26,0852 1,006764 0
7,587866 -26,1047 1,01136 0
7,49682 -26,12606 1,016469 0
7,195241 -26,50142 1,030507 0
7,118941 -26,62018 1,033822 0
7,026096 -26,63988 1,039015 0
6,933183 -26,65926 1,044209 0
6,840201 -26,67831 1,049405 0
6,711164 -27,00986 1,053735 0
6,579565 -26,83171 1,062995 0
6,541045 -27,14434 1,062265 0
6,446369 -27,16201 1,067541 0
6,351634 -27,17935 1,072818 0
6,261578 -27,19551 1,077832 0
6,166726 -27,2122 1,08311 0
5,972101 -27,24537 1,093933 0
5,64121 -27,6019 1,109412 0
5,559519 -27,71531 1,112977 0
5,462854 -27,72953 1,118334 0
5,296459 -27,95506 1,125617 0
5,033732 -28,19167 1,138214 0
4,284943 -28,67894 1,175638 0
4,184914 -28,68868 1,181143 0
4,084853 -28,69806 1,186647 0
3,98476 -28,70709 1,19215 0
3,516753 -29,14556 1,213954 0
2,029444 -30,0122 1,288226 0
1,92478 -30,014 1,293922 0
1,820108 -30,01543 1,299614 0
1,292695 -30,29415 1,33038 0
0,5443949 -30,78751 1,366506 0
0,02406928 -23,17841 1,461162 0
-0,6072311 -23,04192 1,495917 0
-0,6786176 -22,91637 1,50079 0
-0,7601376 -22,93017 1,504976 0
-0,8368547 -22,88388 1,509429 0
-0,9228457 -22,94891 1,513393 0
-1,008056 -22,90933 1,518224 0
-1,095402 -22,98167 1,522186 0
-1,16788 -22,89445 1,526752 0
-1,257724 -22,98608 1,530667 0
-1,325371 -22,93497 1,534657 0
-2,468271 -22,93331 1,594036 0
-2,535867 -22,84185 1,598302 0
-2,617897 -22,86931 1,602285 0
-6,374289 -33,98646 1,698921 0
-6,479035 -33,89779 1,70494 0
-8,137588 -36,0342 1,770177 0
-8,089151 -28,64768 1,827884 0
-10,19226 -34,81518 1,881296 0
-10,33613 -34,84402 1,888075 0
-8,216557 -28,02983 1,83901 0
-8,49925 -28,2218 1,851226 0
-8,780126 -28,41289 1,863336 0
-4,448582 -15,72511 1,753283 0
-4,459317 -15,58131 1,754933 0
-4,479898 -15,46775 1,756818 0
-4,475251 -15,28654 1,75801 0
-4,46528 -15,09429 1,759028 0
-4,463747 -14,92856 1,760243 0
-4,47373 -14,79673 1,761746 0
-4,455996 -14,59393 1,762463 0
-4,465451 -14,46617 1,763903 0
-4,46688 -14,31986 1,765098 0
-4,462995 -14,16254 1,76612 0
-4,455148 -13,99798 1,767004 0
-4,444738 -13,82993 1,76779 0
-4,447241 -13,70391 1,768869 0
-4,451338 -13,57706 1,770028 0
-4,448547 -13,43554 1,770967 0
-4,441776 -13,28683 1,771768 0
-4,440204 -13,15308 1,7727 0
-4,434651 -13,01214 1,773495 0
-4,418769 -12,84932 1,773961 0
-4,423962 -12,7382 1,775036 0
-4,409309 -12,58319 1,775497 0
-4,422572 -12,49436 1,776783 0
-4,409359 -12,34708 1,777249 0
-4,404982 -12,22195 1,777965 0
-4,398152 -12,09336 1,778588 0
-4,375564 -11,93222 1,778706 0
-4,395367 -11,86585 1,780122 0
-4,394566 -11,75595 1,780884 0
-4,386278 -11,63172 1,781397 0
-4,385735 -11,52577 1,782137 0
-4,391406 -11,43441 1,783061 0
-4,37916 -11,3071 1,783403 0
-4,387055 -11,2232 1,784372 0
-4,378595 -11,10705 1,784806 0
-4,371163 -10,99469 1,785259 0
-4,37015 -10,89682 1,785905 0
-4,364925 -10,79196 1,786402 0
-4,362654 -10,6944 1,786983 0
-4,354301 -10,5863 1,787353 0
-4,350763 -10,48906 1,787868 0
-4,341103 -10,38581 1,788139 0
-4,332614 -10,28181 1,788468 0
-4,321499 -10,16998 1,788726 0
-4,304111 -10,05226 1,788734 0
-4,297346 -9,955901 1,789083 0
-4,299516 -9,877291 1,789719 0
-4,312727 -9,819831 1,790716 0
-4,314004 -9,741394 1,791305 0
-4,318689 -9,670055 1,792001 0
-4,317069 -9,588341 1,792475 0
-4,320854 -9,517197 1,793123 0
-4,314297 -9,428774 1,793412 0
-4,311537 -9,351854 1,793796 0
-4,297913 -9,253357 1,793825 0
-4,296185 -9,180178 1,794228 0
-4,285477 -9,08894 1,794338 0
-4,300271 -9,038221 1,79534 0
-4,309087 -8,981593 1,796107 0
-4,29485 -8,887345 1,79607 0
-4,28833 -8,806974 1,796291 0
-4,289674 -8,740396 1,796778 0
-4,284313 -8,663712 1,797025 0
-4,284823 -8,59735 1,797468 0
-4,284934 -8,531095 1,797891 0
-4,274622 -8,452355 1,797921 0
-4,269607 -8,379592 1,79815 0
-4,263441 -8,302668 1,798351 0
-4,243395 -8,208367 1,798034 0
-4,236953 -8,136082 1,79819 0
-4,259717 -8,109061 1,799375 0
-4,296394 -8,106257 1,801032 0
-18,36055 -26,65285 2,315938 0
-18,41323 -26,5298 2,318922 0
-18,51762 -26,47744 2,323777 0
-18,61471 -26,41506 2,32836 0
-18,71161 -26,35231 2,33293 0
-18,81818 -26,31182 2,337796 0
-18,90991 -26,24196 2,342165 0
-19,0014 -26,17178 2,346517 0
-20,88021 -27,99813 2,418635 0
-19,54511 -25,744 2,372297 0
-19,63486 -25,67159 2,376537 0
-19,72435 -25,59879 2,38076 0
-19,98394 -25,55116 2,392178 0
-6,322474 -8,420021 1,887809 0
-6,350243 -8,395312 1,88911 0
-19,73129 -22,54724 2,395145 0
-20,49531 -21,95491 2,429728 0
-43,25546 -30,01005 3,333793 0
-43,12619 -29,48451 3,329288 0
-5,302556 -4,129047 1,859443 0
-5,279781 -4,08281 1,858595 0
-5,279655 -4,052935 1,858623 0
-5,290244 -4,028398 1,859069 0
-5,305818 -4,007022 1,859707 0
-5,321323 -3,985586 1,86034 0
-5,339184 -3,964021 1,861063 0
-5,376704 -3,956032 1,86255 0
-42,7988 -26,25479 3,318926 0
-31,62781 -17,62303 2,884413 0
-16,15079 -7,067768 2,279944 0
-42,78448 -12,8123 3,29877 0
-43,08972 -12,5745 3,309324 0
-43,18332 -12,43363 3,3123 0
-25,72577 -6,423712 2,637284 0
-25,97747 -6,383827 2,646472 0
-29,43875 -6,1916 2,774071 0
-16,37066 -2,529893 2,271193 0
-16,37924 -2,468561 2,271151 0
-16,46681 -2,418161 2,274085 0
-29,4101 -1,617315 2,7448 0
-29,31608 -1,409132 2,739788 0
-29,36461 -1,304358 2,740777 0
-39,47239 -1,457778 3,113157 0
-42,83106 -0,1931917 3,226321 0
-43,10319 -0,03954544 3,235033 0
-42,70315 0,1145388 3,219057 0
-43,23005 0,2710952 3,237078 0
-43,54662 0,5859499 3,246015 0
-43,62412 0,743753 3,247499 0
-42,82155 0,8924641 3,216746 0
-42,89352 1,349192 3,215369 0
-42,98659 1,661537 3,215993 0
-43,67179 2,946151 3,229279 0
-43,63769 3,093625 3,226623 0
-43,56267 3,245842 3,222409 0
-26,17377 13,22376 2,451108 0
-26,10565 13,30891 2,447143 0
-25,99777 13,37436 2,441958 0
-33,30448 23,97601 2,545631 0
-32,79757 23,80083 2,528664 0
-32,65841 23,88046 2,521672 0
-32,87779 24,21412 2,524303 0
-32,89366 24,40529 2,521423 0
-37,1461 34,52795 2,499373 0
-34,47803 34,46214 2,390515 0
-19,84595 20,4806 2,067566 0
-19,13952 20,35607 2,040722 0
-26,14824 29,75225 2,139376 0
-25,84133 29,64681 2,128908 0
-25,5117 29,49236 2,118224 0
-25,36793 29,5305 2,111331 0
-25,34969 29,7187 2,106571 0
-25,56418 30,17033 2,106084 0
-25,51394 30,3268 2,100621 0
-25,18891 30,17035 2,090134 0
-25,08836 30,26856 2,083757 0
-25,01621 30,39974 2,077876 0
-30,08585 37,84962 2,134324 0
-29,82014 38,06768 2,118176 0
-18,98458 27,01464 1,891778 0
-18,69965 27,2251 1,874668 0
-18,57597 27,25576 1,868575 0
-18,44998 27,28265 1,862458 0
-32,16972 48,41078 1,991145 0
-32,1425 48,73516 1,982614 0
-32,05272 48,97062 1,973316 0
-6,971455 13,43891 1,668241 0
-6,964662 13,53419 1,665741 0
-30,55721 58,30096 1,690331 0
-30,54333 58,76354 1,678801 0
-2,87323 8,898001 1,588134 0
-2,84025 8,908643 1,586346 0
-2,822122 8,951945 1,584463 0
-3,888942 11,51125 1,572728 0
-3,833141 11,4943 1,570526 0
-3,791542 11,51463 1,568087 0
-19,67815 64,27788 1,032582 0
-3,786884 16,25071 1,451631 0
-3,705285 16,18782 1,449215 0
-3,64254 16,16498 1,446722 0
-3,579517 16,16084 1,443745 0
-3,527895 16,19481 1,440373 0
-3,487832 16,26894 1,436562 0
-3,457737 16,38994 1,432065 0
-4,21948 20,10101 1,376782 0
-4,138624 20,08129 1,373283 0
-3,433625 18,74704 1,371832 0
-3,164782 18,78703 1,357436 0
-3,109706 18,84903 1,353123 0
-2,745058 19,09245 1,328686 0
-2,657954 19,00828 1,326427 0
-2,554853 18,84142 1,32545 0
-2,540148 19,11345 1,31782 0
-2,463176 19,07547 1,314892 0
-2,357229 18,884 1,314382 0
-2,27773 18,82566 1,311833 0
-2,244261 19,01481 1,305337 0
-2,199575 19,14885 1,299666 0
-2,173005 19,79499 1,281906 0
-2,038128 19,40005 1,285068 0
-1,946506 19,26932 1,283716 0
-1,91293 19,48953 1,2764 0
-1,780564 19,09751 1,279604 0
-1,778324 19,54711 1,268044 0
-1,58032 18,70341 1,279376 0
-1,518825 18,74082 1,275267 0
-1,550857 19,42716 1,259424 0
-1,467113 19,32588 1,257697 0
-1,440142 19,63234 1,248492 0
-1,248915 18,70167 1,262373 0
-1,205557 18,88075 1,255565 0
-1,156954 19,02801 1,249294 0
-1,086312 19,00448 1,246239 0
-1,006863 18,93344 1,243936 0
-0,9321717 18,86964 1,241692 0
-0,8181627 18,45185 1,246451 0
-0,7798624 18,70141 1,23808 0
-0,7700153 19,23729 1,223863 0
-0,6766265 18,98953 1,225334 0
-0,608248 18,94403 1,222932 0
-0,56601 19,20513 1,214043 0
-0,4819165 19,0281 1,214177 0
-0,39453 18,79894 1,21547 0
-0,3111205 18,5973 1,216263 0
-0,237199 18,49495 1,215007 0
-0,1674045 18,43618 1,212846 0
-0,2034511 19,80489 1,179664 0
-0,7522374 28,60173 0,9830555 0
-0,6481732 28,55059 0,9788741 0
-0,5458803 28,52103 0,974227 0
-0,4555101 28,6867 0,9651961 0
-0,3626539 28,82813 0,9566495 0
-0,2639835 28,87741 0,9501527 0
-0,1720932 28,86595 0,9455714 0
-0,06857852 28,81871 0,9412827 0
0,04731527 28,70759 0,937966 0
0,1317754 29,12707 0,9226969 0
0,2223768 29,16631 0,9168603 0
0,323777 29,1936 0,910746 0
0,7994238 41,61094 0,5662545 0
0,9451013 41,6121 0,5583793 0
1,09078 41,61273 0,5505082 0
1,807361 55,18851 0,1629358 0
10,71372 69,31927 -0,6927827 0
10,9355 69,13895 -0,7007133 0
11,18419 69,15177 -0,7150971 0
11,42204 69,08856 -0,7269422 0
11,65304 68,98106 -0,7372839 0
11,89923 68,97552 -0,7511024 0
12,14738 68,98091 -0,7653267 0
12,38743 68,93414 -0,7777755 0
12,88736 70,46424 -0,8451912 0
13,13719 70,44245 -0,8588635 0
13,38633 70,41583 -0,8723891 0
13,63266 70,37258 -0,8853471 0
13,88589 70,36783 -0,8996933 0
14,13206 70,32282 -0,9126281 0
14,37513 70,26125 -0,9249797 0
14,6351 70,28915 -0,9405881 0
14,88099 70,24152 -0,9534864 0
15,12529 70,25038 -0,9677397 0
15,36396 70,16579 -0,9793147 0
15,62141 70,17435 -0,9943494 0
15,86201 70,09981 -1,006321 0
16,58513 69,88682 -1,042677 0
16,85133 69,9299 -1,059167 0
11,30594 39,74975 0,02467304 0
10,88097 37,51099 0,1058307 0
10,41018 34,65964 0,2050644 0
10,15383 33,214 0,2563987 0
9,97012 31,63604 0,3067884 0
9,570428 29,77254 0,3769971 0
9,668164 29,72007 0,372572 0
9,128379 26,76417 0,478368 0
9,209594 26,69422 0,4753297 0
8,7722 24,90185 0,5459458 0
8,820982 24,74915 0,5468792 0
8,907675 24,72244 0,5424204 0
8,528328 23,20389 0,6027549 0
8,605674 23,15219 0,599453 0
8,721524 23,23473 0,5905276 0
8,344414 21,80681 0,6484602 0
8,425799 21,797 0,6438701 0
8,016518 20,30757 0,7052361 0
7,985971 19,98064 0,7151775 0
8,053044 19,93681 0,7122694 0
8,12681 19,92418 0,7081845 0
8,194479 19,90496 0,7046239 0
8,261589 19,87296 0,7014076 0
8,349168 19,90977 0,6952614 0
8,406792 19,85092 0,6932679 0
8,497543 19,8733 0,6872768 0
8,567188 19,84779 0,6837301 0
8,669403 19,89941 0,6763193 0
8,751775 19,90697 0,6711834 0
8,831596 19,92806 0,6658658 0
8,902861 19,90511 0,6621403 0
8,995416 19,91647 0,6562812 0
9,071034 19,9041 0,6520234 0
9,15294 19,92766 0,6465027 0
9,259789 19,99264 0,6384522 0
9,306433 19,89634 0,6379886 0
9,365605 19,8421 0,6357331 0
9,436361 19,82604 0,6318452 0
9,485918 19,74928 0,6307144 0
9,560535 19,73321 0,6265759 0
9,636701 19,72054 0,6222558 0
9,730945 19,74983 0,6158092 0
9,820746 19,7677 0,6099064 0
9,905985 19,77419 0,6045534 0
9,996203 19,7913 0,5986341 0
10,07043 19,7715 0,5945824 0
10,15116 19,76601 0,5897813 0
10,21863 19,73993 0,5862866 0
10,29278 19,71931 0,5822451 0
10,38874 19,73672 0,575942 0
10,44104 19,66838 0,5743833 0
10,49636 19,61599 0,5722516 0
10,55056 19,55281 0,570443 0
10,61989 19,51308 0,5671329 0
10,69348 19,49095 0,5631343 0
10,80122 19,54744 0,5551393 0
10,89878 19,57306 0,548508 0
11,02931 19,65559 0,5384707 0
11,07318 19,5712 0,5377797 0
11,18331 19,6276 0,529621 0
11,2702 19,62831 0,5242254 0
11,33888 19,59314 0,5208035 0
11,40753 19,55769 0,5173901 0
11,47947 19,52023 0,5138155 0
11,54787 19,4843 0,5104198 0
11,63148 19,48522 0,5052 0
11,67148 19,39593 0,5048277 0
7,380935 11,28431 0,9641747 0
7,347989 11,12951 0,9698964 0
7,321731 10,99365 0,9747515 0
7,290726 10,84655 0,9801651 0
7,270446 10,72074 0,9844041 0
7,233694 10,56736 0,9903201 0
7,276591 10,55232 0,9879938 0
12,4178 19,45715 0,4567531 0
12,48259 19,41989 0,4535635 0
12,61855 19,34078 0,4468764 0
12,65078 19,24067 0,4471875 0
12,72331 19,20923 0,4433561 0
12,78445 19,15867 0,4406823 0
12,87845 19,16262 0,4346643 0
12,95599 19,13885 0,4303237 0
13,02305 19,09776 0,4270419 0
6,177267 7,889474 1,119387 0
6,162723 7,804504 1,122281 0
6,145539 7,716352 1,125414 0
6,131006 7,63348 1,128256 0
6,156798 7,614769 1,12706 0
6,197648 7,619483 1,124368 0
6,233158 7,615627 1,12221 0
6,262146 7,601586 1,120698 0
6,297687 7,597446 1,118541 0
6,332157 7,591487 1,116491 0
6,369975 7,59036 1,114116 0
6,41231 7,595688 1,111303 0
6,513986 7,633021 1,103981 0
6,54085 7,614658 1,102689 0
6,567649 7,596202 1,101401 0
6,594384 7,577653 1,100118 0
6,674198 7,521451 1,096294 0
6,951551 7,566529 1,077486 0
6,949363 7,508354 1,078933 0
7,206297 7,624013 1,059789 0
7,129936 7,471015 1,068124 0
7,166103 7,463066 1,065964 0
7,286569 7,561404 1,055992 0
7,31318 7,54035 1,054734 0
7,297204 7,466277 1,057407 0
7,327251 7,449845 1,055822 0
7,418884 7,455211 1,049756 0
7,445124 7,433698 1,048524 0
7,471288 7,412093 1,047296 0
7,543557 7,445477 1,041863 0
7,582955 7,386281 1,040588 0
7,629734 7,388459 1,03749 0
7,663583 7,377906 1,035511 0
7,711806 7,381167 1,03229 0
7,745671 7,367651 1,030369 0
7,778201 7,352491 1,028569 0
7,826709 7,355091 1,025344 0
7,861907 7,34258 1,023308 0
7,913121 7,347724 1,01984 0
7,944345 7,330408 1,018163 0
7,983602 7,321813 1,015769 0
8,025582 7,315974 1,013136 0
8,06896 7,311397 1,010382 0
8,123275 7,318291 1,006661 0
8,153131 7,29869 1,005112 0
8,193904 7,29058 1,002597 0
8,236189 7,286379 0,9998999 0
8,285315 7,286524 0,9966558 0
8,331753 7,283543 0,9936525 0
8,406672 7,258323 0,9892305 0
8,491065 7,293092 0,9829186 0
8,957943 7,193624 0,9539536 0
8,996395 7,179005 0,9516873 0
9,036301 7,165565 0,9492975 0
9,074739 7,150582 0,947035 0
20,10954 16,94702 0,01079963 0
20,13917 16,85431 0,01066121 0
20,24298 16,82789 0,004214364 0
20,42465 16,86964 -0,008826166 0
11,00971 8,321549 0,7938115 0
11,03911 8,293467 0,7923898 0
21,12381 16,63889 -0,05139501 0
21,29247 16,66128 -0,06322366 0
21,40312 16,63433 -0,07017727 0
21,51998 16,61188 -0,0776449 0
21,64352 16,60602 -0,08588822 0
21,7699 16,58988 -0,09413309 0
21,8902 16,56805 -0,1018622 0
22,00125 16,5381 -0,1088141 0
22,12147 16,5089 -0,1164094 0
22,27024 16,5074 -0,1264767 0
22,37551 16,47677 -0,1330395 0
22,53096 16,47865 -0,1436364 0
29,08474 21,41237 -0,6827034 0
29,08045 21,25412 -0,6794236 0
29,04411 21,06476 -0,6733848 0
29,02861 20,90002 -0,669235 0
28,9959 20,73094 -0,6638372 0
28,94354 20,54079 -0,6567136 0
28,92907 20,37251 -0,6525916 0
28,91666 20,21416 -0,6488015 0
28,93522 20,09398 -0,6478386 0
29,0638 20,03899 -0,6556089 0
29,22851 19,9945 -0,6660533 0
29,39284 19,96349 -0,6767259 0
29,57642 19,95987 -0,689223 0
29,72146 19,91327 -0,6983034 0
29,90294 19,87641 -0,7100692 0
30,0842 19,85304 -0,7220719 0
30,22911 19,81846 -0,7313824 0
30,44368 19,81565 -0,7460573 0
30,59573 19,76915 -0,7556593 0
11,6433 6,920956 0,7773747 0
29,53066 18,75603 -0,6642823 0
29,60965 18,6657 -0,6680989 0
29,80188 18,64938 -0,6810338 0
29,80692 18,51017 -0,6789071 0
29,8147 18,37333 -0,6770174 0
29,60335 18,09686 -0,6575684 0
29,67367 18,00888 -0,6608646 0
29,89542 18,00927 -0,6761654 0
29,8296 17,82138 -0,6683338 0
29,91235 17,73385 -0,6725178 0
29,91698 17,60496 -0,6705923 0
12,33929 6,73212 0,732863 0
12,38741 6,71088 0,7299142 0
12,46234 6,702878 0,7248803 0
12,50937 6,675098 0,7221133 0
12,57752 6,662237 0,717626 0
12,65144 6,655 0,7126404 0
12,74383 6,655395 0,7062413 0
12,80643 6,63525 0,7022538 0
12,88172 6,624687 0,6972199 0
12,95362 6,611707 0,6924602 0
30,59986 16,50209 -0,6990389 0
30,72792 16,44529 -0,7069793 0
30,86925 16,38846 -0,7158499 0
30,93428 16,29564 -0,7188216 0
31,08592 16,24325 -0,7284967 0
31,29019 16,21848 -0,7422993 0
32,17331 16,55663 -0,8093506 0
31,98467 16,31708 -0,7922738 0
32,01356 16,1945 -0,7922769 0
14,19528 6,450986 0,6087835 0
14,10513 6,23825 0,6185084 0
14,30672 6,280252 0,6037518 0
14,60146 6,256735 0,5835189 0
14,59094 6,194956 0,5852306 0
14,57653 6,131655 0,5872356 0
14,55096 6,063545 0,5900946 0
14,5487 6,006415 0,5911462 0
14,56075 5,955926 0,5910879 0
14,65827 5,94359 0,5844424 0
14,73761 5,922589 0,5792024 0
14,82793 5,9059 0,5731219 0
14,92196 5,890236 0,5667621 0
15,02236 5,879527 0,559877 0
15,12019 5,864242 0,5532383 0
15,19968 5,840606 0,5480107 0
15,30129 5,825695 0,5410939 0
15,41503 5,812245 0,5332969 0
15,51677 5,795997 0,5263834 0
15,61756 5,781602 0,5195063 0
15,71572 5,762604 0,5128794 0
15,79907 5,737112 0,507387 0
15,91957 5,725673 0,4990672 0
16,00669 5,700467 0,4932984 0
16,36062 4,903228 -0,07587874 1
16,37793 4,850404 -0,07637979 1
16,38367 4,793903 -0,07559541 1
16,41957 4,746965 -0,07820086 1
16,42954 4,688937 -0,07784349 1
16,42709 4,630049 -0,07617553 1
16,43502 4,57734 -0,07575009 1
16,46643 4,528821 -0,07788989 1
16,52058 4,486894 -0,08257435 1
16,52879 4,431295 -0,08214103 1
16,51004 4,368003 -0,07871522 1
16,5293 4,315753 -0,07953719 1
16,55604 4,26557 -0,08120111 1
16,59028 4,217369 -0,08370749 1
16,60135 4,162712 -0,0836466 1
16,5815 4,099777 -0,08016403 1
16,60383 4,048149 -0,0813603 1
16,61814 3,994494 -0,08169339 1
16,62457 3,938808 -0,0811628 1
16,61922 3,880195 -0,07934119 1
16,61752 3,822635 -0,07793513 1
16,63104 3,768937 -0,07822528 1
16,63279 3,712384 -0,0772243 1
16,67688 3,666021 -0,08090932 1
16,74019 3,623943 -0,08672018 1
16,90802 3,605658 -0,1040544 0
17,03201 3,582029 -0,1166604 0
17,18829 3,559073 -0,1327013 0
17,34971 3,530314 -0,1491851 0
17,48272 3,500135 -0,1626475 0
17,64562 3,481398 -0,1795012 0
17,79031 3,451821 -0,1942312 0
17,95057 3,424478 -0,2106633 0
18,13033 3,399992 -0,2292246 0
18,27501 3,367317 -0,2439302 0
18,32598 3,315417 -0,248364 0
18,40414 3,268428 -0,255781 0
18,47436 3,219466 -0,2623315 0
18,52489 3,166455 -0,2667327 0
18,52046 3,103254 -0,2651352 0
18,53144 3,042907 -0,2652365 0
18,55791 2,985219 -0,2670369 0
18,57686 2,923038 -0,2679743 0
18,55977 2,857933 -0,2650455 0
18,54588 2,796633 -0,2625301 0
18,55188 2,735566 -0,2621452 0
18,55028 2,670261 -0,260894 0
18,53618 2,606235 -0,2583458 0
18,53275 2,550106 -0,2570694 0
18,53395 2,488576 -0,2562102 0
18,51918 2,424854 -0,2536286 0
18,5357 2,365593 -0,2544577 0
18,53624 2,30414 -0,253564 0
18,50107 2,238099 -0,2488084 0
18,42225 2,166846 -0,2393359 1
18,44182 2,108305 -0,2405466 1
18,41776 2,044472 -0,2370407 1
18,42111 1,984037 -0,2365178 1
18,38935 1,913647 -0,2321225 1
18,39225 1,853345 -0,2315757 1
18,35079 1,794444 -0,2263268 1
18,32952 1,731896 -0,2231929 1
18,34762 1,673399 -0,2243242 1
18,25463 1,604329 -0,2134721 1
18,20891 1,540252 -0,2077409 1
18,15503 1,475829 -0,2011444 1
18,17248 1,414839 -0,2022216 1
18,12605 1,35161 -0,1964588 1
18,10295 1,293482 -0,1932611 1
18,0878 1,233177 -0,1908968 1
18,04465 1,171061 -0,1855314 1
18,0251 1,11084 -0,182719 1
18,00117 1,05344 -0,1794825 1
17,9931 0,994244 -0,1779312 1
17,98483 0,9351184 -0,1763688 1
17,96045 0,8752375 -0,1730886 1
17,98765 0,8151411 -0,1753313 1
17,96683 0,7556316 -0,1724559 1
17,98143 0,7006739 -0,1734271 1
17,89262 0,6387782 -0,1632793 1
17,89899 0,5808161 -0,1633604 1
17,87733 0,5219547 -0,1604456 1
17,83567 0,4598219 -0,1553704 1
17,83743 0,4019263 -0,1549928 1
17,7952 0,3460149 -0,1499365 1
17,80054 0,2883319 -0,1499645 1
17,78581 0,2303498 -0,1478521 1
17,77484 0,1725164 -0,146155 1
17,77551 0,1177711 -0,1457467 1
17,76813 0,06007025 -0,1444551 1
17,75657 0,002426198 -0,1427276 1
17,76072 -0,05519699 -0,1426915 1
17,73681 -0,1155073 -0,1396433 1
17,74054 -0,173087 -0,1395853 1
17,7282 -0,2275923 -0,1378407 1
17,71564 -0,2848802 -0,136062 1
17,6989 -0,3419947 -0,1338482 1
17,68992 -0,3991921 -0,132474 1
17,69664 -0,4567829 -0,1327877 1
17,6634 -0,5131496 -0,128846 1
17,62212 -0,5661553 -0,1240752 1
17,63222 -0,6237411 -0,1247825 1
17,6184 -0,677544 -0,1229636 1
17,63209 -0,7353782 -0,1240733 1
17,59776 -0,7938065 -0,1200564 1
17,61104 -0,8516799 -0,1211437 1
17,60823 -0,9087558 -0,1205252 1
17,57345 -0,9639129 -0,1165098 1
17,57421 -1,021106 -0,1162946 1
17,55493 -1,076985 -0,1139534 1
17,44023 -1,126007 -0,101456 1
17,47613 -1,185421 -0,105017 1
17,50788 -1,244815 -0,1081416 1
17,48387 -1,299909 -0,1053407 1
17,45174 -1,354174 -0,1016865 1
17,43924 -1,409979 -0,1001338 1
17,47013 -1,469715 -0,1032111 1
17,481 -1,527794 -0,1041665 1
17,44415 -1,581262 -0,1000532 1
17,42296 -1,636114 -0,09761716 1
17,43352 -1,691375 -0,09857858 1
17,44359 -1,74954 -0,09949043 1
17,46531 -1,809135 -0,1016521 1
17,4552 -1,865217 -0,1004368 1
17,437 -1,920299 -0,09837098 1
17,48967 -1,984066 -0,1038572 1
17,44344 -2,035667 -0,09883022 1
17,44438 -2,09316 -0,09883261 1
17,453 -2,151743 -0,09966279 1
17,43776 -2,207147 -0,09796539 1
17,48141 -2,270834 -0,1025437 1
17,45789 -2,325138 -0,09998626 1
17,48223 -2,380684 -0,1025329 1
17,50161 -2,441458 -0,1045588 1
17,51639 -2,504612 -0,1061068 1
17,4803 -2,556937 -0,102254 1
17,49901 -2,617992 -0,1042419 1
17,52141 -2,679866 -0,1066334 1
17,53574 -2,740592 -0,1081765 1
17,52633 -2,797363 -0,1072042 1
17,51329 -2,850578 -0,1058543 1
17,5583 -2,917182 -0,1106933 1
17,52037 -2,971802 -0,1067226 1
17,51015 -3,028513 -0,1057072 1
17,52707 -3,090438 -0,1075919 1
17,49692 -3,143352 -0,1044764 1
17,49445 -3,198709 -0,1043124 1
17,47954 -3,254535 -0,1028399 1
17,46833 -3,311097 -0,1017725 1
17,45692 -3,367617 -0,1006946 1
17,46477 -3,428257 -0,1016775 1
17,45295 -3,484762 -0,1005776 1
17,47978 -3,549817 -0,1036045 1
17,51801 -3,617719 -0,1078561 1
17,53268 -3,680613 -0,1096111 1
17,53935 -3,741853 -0,1105265 1
17,57291 -3,809579 -0,1143168 1
17,57911 -3,871094 -0,1152034 1
17,58507 -3,932697 -0,1160773 1
17,57149 -3,989617 -0,1148788 1
17,60476 -4,055291 -0,1186687 1
17,60618 -4,116201 -0,1190917 1
17,63819 -4,185123 -0,1227888 1
17,65452 -4,250288 -0,1248265 1
17,63983 -4,307447 -0,1235663 1
17,62494 -4,364551 -0,1222958 1
17,64056 -4,429988 -0,1242925 1
17,65208 -4,494527 -0,1258647 1
17,70166 -4,569953 -0,1315131 1
17,67055 -4,622915 -0,1285563 1
17,69661 -4,692247 -0,1317187 1
17,69184 -4,752892 -0,1315984 1
17,69996 -4,81123 -0,1328258 1
17,7138 -4,877668 -0,1347189 1
17,70749 -4,941345 -0,1344912 1
17,69038 -4,998676 -0,1330993 1
17,69967 -5,064219 -0,1345429 1
17,68972 -5,123911 -0,1339406 1
17,73734 -5,19886 -0,1394868 1
17,73827 -5,262398 -0,1400733 1
17,73518 -5,32477 -0,1402409 1
17,71673 -5,38219 -0,138776 1
17,68204 -5,437355 -0,1356083 1
17,68959 -5,503514 -0,136953 1
17,66309 -5,558288 -0,134648 1
17,65134 -5,618054 -0,133948 1
17,63009 -5,66817 -0,132179 1
17,64422 -5,737156 -0,1342779 1
17,62231 -5,799936 -0,1325832 1
17,48245 -5,813608 -0,1181651 1
17,41371 -5,852353 -0,1113926 1
17,38222 -5,904491 -0,108633 1
17,3282 -5,948115 -0,1034598 1
17,27779 -5,992837 -0,09868357 1
17,20229 -6,024565 -0,09118043 1
17,12198 -6,05718 -0,0832001 1
17,1121 -6,116764 -0,08281268 1
17,07608 -6,166144 -0,07961942 1
17,04359 -6,216816 -0,0768179 1
17,01096 -6,267334 -0,07400911 1
17,01503 -6,33267 -0,07517284 1
16,98938 -6,386027 -0,07314046 1
16,93637 -6,421649 -0,06808552 1
16,93613 -6,485448 -0,06881761 1
16,88568 -6,534629 -0,06421435 1
16,85203 -6,584351 -0,06135703 1
16,82053 -6,628512 -0,05866028 1
16,79388 -6,681104 -0,05657998 1
16,74877 -6,725545 -0,05251639 1
16,73271 -6,782693 -0,05160408 1
16,70191 -6,833309 -0,04910405 1
16,6528 -6,875602 -0,04462787 1
16,62169 -6,925886 -0,04211447 1
16,5868 -6,97437 -0,03920041 1
16,54815 -7,021016 -0,03588677 1
16,49854 -7,06241 -0,03139127 1
16,45963 -7,108642 -0,02806678 1
16,43136 -7,159828 -0,02591017 1
16,41368 -7,21608 -0,02491717 1
16,36715 -7,258381 -0,02079075 1
